# .PCD v0.7 - Point Cloud Data file format
VERSION 0.7
FIELDS x y z intensity ring timestamp
SIZE 4 4 4 4 2 8
TYPE F F F F U F
COUNT 1 1 1 1 1 1
WIDTH 981
HEIGHT 1
VIEWPOINT 0 0 0 1 0 0 0
POINTS 981
DATA ascii
2.7687523 1.107618 -0.51912779 9 4 0.0470438
4.2192621 1.6861054 -0.55280459 8 7 0.047047138
3.3705926 1.8800954 -0.53688854 8 6 0.047052383
24.773283 9.8870859 -0.46497571 4 19 0.047054052
13.699162 7.6338153 -0.54370779 5 17 0.047059298
2.6540601 0.46676666 -0.51662809 9 3 0.047066212
1.6929213 0.52550346 -0.49760798 5 0 0.047067881
7.8103886 1.3732312 -0.62001795 5 12 0.047069788
2.3407917 0.72692931 -0.51312017 7 2 0.047071457
21.889883 3.8420193 -0.57718992 6 18 0.047073126
3.219629 0.99868876 -0.52777517 9 5 0.047074795
5.6263309 1.7441415 -0.56279063 31 10 0.047078371
5.2358413 0.50620538 -0.54838496 6 9 0.04708004
5.7087917 1.7696766 -0.2594263 71 16 0.047081709
4.2020078 2.7678764 -0.56853986 6 8 0.047094107
2.0032537 0.79407454 -0.50817096 11 1 0.047095776
8.2495251 5.4335184 -0.60037309 6 14 0.047097683
2.7680244 1.0961313 -0.51826042 9 4 0.047099352
4.2205081 1.6695403 -0.55219609 7 7 0.04710269
3.377461 1.8677289 -0.53688854 8 6 0.047107935
13.72354 7.5847402 -0.54362094 5 17 0.047114849
2.6388164 0.45415908 -0.5132919 9 3 0.047121763
1.7017314 0.52140188 -0.49967271 6 0 0.047123432
7.8053088 1.3442746 -0.6192351 5 12 0.04712534
2.3504558 0.72049117 -0.51467824 9 2 0.047127008
22.100872 3.7955523 -0.58239037 6 18 0.047128677
3.2230957 0.9874441 -0.52777517 8 5 0.047130346
5.6279263 1.7220532 -0.5623123 25 10 0.047133923
5.2327089 0.48655918 -0.54786319 5 9 0.047135592
5.7343469 1.7545826 -0.26029867 28 16 0.04713726
4.2079706 2.7497325 -0.56797475 6 8 0.047149658
2.0061505 0.78672695 -0.50817096 10 1 0.047151327
8.2839985 5.4128132 -0.6014384 6 14 0.047153234
2.7788992 1.0886762 -0.51956147 9 4 0.047154903
4.224288 1.653155 -0.5518918 7 7 0.047158241
3.3882973 1.8583157 -0.53758353 9 6 0.047163486
3.5128996 1.9221423 -0.34662274 10 11 0.047167063
13.764392 7.5415983 -0.54414183 5 17 0.047170401
2.6524901 0.44695774 -0.51567489 12 3 0.047177315
1.7081429 0.51684701 -0.50104922 6 0 0.047178984
7.7905197 1.31236 -0.6176694 5 12 0.047180891
2.3552973 0.71298939 -0.51519758 9 2 0.04718256
22.195322 3.7320373 -0.5845356 6 18 0.047184229
3.2337849 0.97776544 -0.52894717 8 5 0.047185898
5.6481972 1.7067132 -0.56374735 20 10 0.047189474
5.2368526 0.46850827 -0.54812407 6 9 0.047191143
5.797821 1.7518809 -0.26291585 1 16 0.047192812
4.2237878 2.7390921 -0.56882244 6 8 0.04720521
2.0043528 0.77795714 -0.50700539 11 1 0.047206879
8.3195829 5.3947382 -0.60265589 6 14 0.047208786
2.7872732 1.0807517 -0.5204289 9 4 0.047210455
4.2251201 1.6373429 -0.55128336 8 7 0.047213793
3.3969367 1.8476633 -0.53793103 12 6 0.047219038
3.490823 1.8949939 -0.34379584 57 11 0.047222614
13.764295 7.4791808 -0.54310006 5 17 0.047225952
2.6467674 0.43651387 -0.51424509 8 3 0.047232866
1.7145433 0.51225376 -0.50242573 5 0 0.047234535
7.7899103 1.2857105 -0.61727798 5 12 0.047236443
2.353085 0.70336545 -0.51415884 8 2 0.047238111
22.264297 3.6677434 -0.58603078 7 18 0.04723978
3.2322767 0.96562463 -0.52816582 8 5 0.047241449
5.6514411 1.6872622 -0.56350815 17 10 0.047245026
5.2235904 0.44897184 -0.54655868 5 9 0.047246695
6.090807 1.81832 -0.27600166 13 16 0.047248363
4.2265892 2.7210262 -0.56797475 6 8 0.047260761
2.004653 0.77043247 -0.50642258 10 1 0.04726243
8.3479128 5.3738828 -0.6034168 6 14 0.047264338
2.7816491 1.0679686 -0.5186941 9 4 0.047266006
4.2261763 1.6208062 -0.55067492 7 7 0.047269344
3.3965144 1.8328514 -0.53688854 12 6 0.04727459
3.4908428 1.8792458 -0.34314346 85 11 0.047278166
13.84399 7.4631562 -0.54527038 5 17 0.047281504
2.650624 0.42812055 -0.51472169 9 3 0.047288418
1.7093158 0.5045296 -0.50036097 5 0 0.047290087
7.7820468 1.2565334 -0.61629945 5 12 0.047291994
2.3554044 0.69555843 -0.51415884 8 2 0.047293663
22.328777 3.5983407 -0.58739591 8 18 0.047295332
3.242734 0.95642877 -0.52933776 7 5 0.047297001
5.6883292 1.676664 -0.56661749 13 10 0.047300577
5.227529 0.43184805 -0.54681957 6 9 0.047302246
6.0923252 1.7956369 -0.27578357 64 16 0.047303915
4.2381525 2.7075968 -0.56825727 6 8 0.047316313
2.0141454 0.76602739 -0.50817096 10 1 0.047317982
8.3876371 5.3581619 -0.60493869 6 14 0.047319889
2.7899625 1.0600034 -0.51956147 9 4 0.047321558
4.2387671 1.6086876 -0.55158758 8 7 0.047324896
3.4137967 1.8268414 -0.53862602 15 6 0.047330141
25.75078 9.7597828 -0.48007205 7 19 0.04733181
3.5039675 1.8705773 -0.34379584 87 11 0.047333717
13.854537 7.4065347 -0.54466271 5 17 0.047337055
2.6593771 0.41999823 -0.51615149 9 3 0.047343969
1.7202984 0.50124204 -0.50311399 5 0 0.047345638
7.7839241 1.2289745 -0.61610371 5 12 0.047347546
2.3554699 0.6866492 -0.51363951 8 2 0.047349215
22.175793 3.4943559 -0.58304042 8 18 0.047350883
3.2460527 0.9451037 -0.52933776 7 5 0.047352552
5.2166104 0.41263768 -0.54551518 6 9 0.047357798
6.084166 1.7701764 -0.27512929 73 16 0.047359467
4.2391953 2.6874523 -0.56712699 6 8 0.047371864
2.0122573 0.75727654 -0.50700539 10 1 0.047373533
8.4231405 5.3395529 -0.60615611 6 14 0.047375441
2.7913411 1.0493907 -0.51912779 9 4 0.04737711
23.011177 14.58766 -0.23272155 9 20 0.047378778
4.2373891 1.5912627 -0.55067492 8 7 0.047380447
3.4051716 1.8061727 -0.53619349 20 6 0.047385693
26.077242 9.7795649 -0.48552594 38 19 0.047387362
3.5082762 1.8571663 -0.34357837 72 11 0.047389269
13.920033 7.3792071 -0.54622531 5 17 0.047392607
2.6584723 0.40987962 -0.51567489 8 3 0.047399521
1.7198135 0.49427137 -0.50242573 5 0 0.04740119
7.7758479 1.1999044 -0.61512512 5 12 0.047403097
2.3626721 0.67936033 -0.51467824 7 2 0.047404766
22.210682 3.4164679 -0.5836255 8 18 0.047406435
3.249332 0.93376708 -0.52933776 7 5 0.047408104
5.9178658 1.6983367 -0.5883829 15 10 0.04741168
5.2230468 0.39388105 -0.54603696 6 9 0.047413349
6.1122208 1.7540609 -0.27611071 43 16 0.047415018
4.2553186 2.6758745 -0.56797475 6 8 0.047427416
2.0218532 0.75244433 -0.50875366 11 1 0.047429085
8.4764366 5.3299265 -0.60859108 6 14 0.047430992
2.790554 1.0374348 -0.51826042 9 4 0.047432661
23.030634 14.48192 -0.23237947 34 20 0.04743433
4.2385406 1.5739921 -0.55006641 8 7 0.047435999
3.4136453 1.7954313 -0.53654104 24 6 0.047441244
26.145721 9.6960907 -0.48613676 25 19 0.047442913
3.5282815 1.8512578 -0.34488311 38 11 0.04744482
13.95362 7.3316274 -0.54648578 5 17 0.047448158
2.664742 0.40131778 -0.51662809 9 3 0.047455072
1.716903 0.48695713 -0.50104922 6 0 0.047456741
7.7703352 1.1699196 -0.61434227 4 12 0.047458649
2.3556173 0.66844386 -0.51260084 6 2 0.047460318
22.227415 3.3396587 -0.58375549 7 18 0.047461987
3.2479804 0.92050672 -0.52855647 8 5 0.047463655
5.9046016 1.6722484 -0.58646941 10 10 0.047467232
5.2144685 0.37494954 -0.5449934 6 9 0.047468901
6.1279197 1.7354347 -0.2765469 52 16 0.04747057
4.2604227 2.6583669 -0.56740957 6 8 0.04681921
2.0244675 0.74538219 -0.50875366 9 1 0.046820879
8.5140333 5.3122101 -0.60996079 6 14 0.046822786
2.7918482 1.0268366 -0.51782674 9 4 0.046824455
4.2507234 1.5624982 -0.55097908 7 7 0.046827793
3.4176981 1.7823564 -0.53619349 27 6 0.046833038
3.543231 1.8441597 -0.34575292 15 11 0.046836615
13.99685 7.2921166 -0.54718029 5 17 0.046839952
2.6588402 0.3909584 -0.51519823 9 3 0.046846867
1.7162774 0.48031512 -0.50036097 6 0 0.046848536
7.7717061 1.1437848 -0.61414659 5 12 0.046850443
2.3650019 0.66219127 -0.51415884 8 2 0.046852112
22.161715 3.2546945 -0.58174032 6 18 0.046853781
3.2581499 0.91172433 -0.52972847 8 5 0.04685545
5.9029245 1.6506499 -0.58575195 11 10 0.046859026
5.2207079 0.3570767 -0.54551518 6 9 0.046860695
6.1456685 1.7184647 -0.27709216 6 16 0.046862364
11.950066 0.81266123 -0.62385345 4 15 0.046864271
4.2734342 2.6468477 -0.56797475 6 8 0.046874762
2.0177934 0.73532909 -0.50642258 11 1 0.046876431
8.5485649 5.2944732 -0.61117828 6 14 0.046878338
2.7929244 1.0167296 -0.51739299 9 4 0.046880007
4.2514882 1.5459538 -0.55037063 7 7 0.046883345
3.4235899 1.771013 -0.53619349 27 6 0.04688859
24.719202 8.9760666 -0.45843107 3 19 0.046890259
14.032051 7.2514014 -0.54761434 5 17 0.046895504
2.6674118 0.38317031 -0.51662809 9 3 0.046902418
1.7271292 0.4771741 -0.50311399 6 0 0.046904087
7.7707162 1.1159445 -0.61375517 5 12 0.046905994
2.3648276 0.65369475 -0.51363951 7 2 0.046907663
22.316431 3.1978397 -0.58551073 6 18 0.046909332
3.2517903 0.89772117 -0.52816582 8 5 0.046911001
5.9086504 1.6300349 -0.58575195 10 10 0.046914577
5.209456 0.3389751 -0.54421073 6 9 0.046916246
11.940371 0.7701481 -0.62320137 4 15 0.046919823
4.2805333 2.6306102 -0.56769216 6 8 0.046930313
2.0294943 0.73158491 -0.50875366 9 1 0.046931982
8.6009922 5.285533 -0.61361325 6 14 0.046933889
2.803405 1.0094799 -0.5186941 9 4 0.046935558
4.2591934 1.5319444 -0.55067492 7 7 0.046938896
3.4209464 1.754519 -0.53480351 20 6 0.046944141
24.962103 8.9657822 -0.46235788 4 19 0.04694581
14.08618 7.2171974 -0.54874289 5 17 0.046951056
2.6638708 0.37318653 -0.51567489 9 3 0.04695797
1.7311034 0.47177246 -0.50380224 6 0 0.046959639
7.7523484 1.0857183 -0.61199373 5 12 0.046961546
2.3670948 0.64543599 -0.51363951 8 2 0.046963215
22.285381 3.1140528 -0.5844056 6 18 0.046964884
3.257287 0.8870126 -0.52855647 8 5 0.046966553
5.926311 1.6126642 -0.5869478 8 10 0.046970129
5.2031622 0.32034239 -0.54342806 6 9 0.046971798
11.930528 0.72771257 -0.62254936 4 15 0.046975374
4.2918081 2.6169491 -0.56797475 6 8 0.046985865
2.0320356 0.72449625 -0.50875366 9 1 0.046987534
8.6321659 5.2632823 -0.61452633 6 14 0.046989441
2.8115494 1.0013423 -0.51956147 9 4 0.04699111
4.2575021 1.5145705 -0.54976213 7 7 0.046994448
3.4383807 1.7475942 -0.53654104 20 6 0.046999693
24.899033 8.8451195 -0.46061262 4 19 0.047001362
14.115741 7.170248 -0.54891652 5 17 0.047006607
2.6725178 0.36439925 -0.51710463 9 3 0.047013521
1.7258562 0.46355957 -0.50173748 6 0 0.04701519
7.7511516 1.0579804 -0.61160231 7 12 0.047017097
2.3647206 0.63548917 -0.51260084 9 2 0.047018766
22.281784 3.0303347 -0.58401555 6 18 0.047020435
3.2627487 0.87627679 -0.52894717 8 5 0.047022104
5.9129515 1.5857797 -0.58503437 7 10 0.047025681
5.1993361 0.3009904 -0.54290628 6 9 0.047027349
6.4796553 1.7376212 -0.29137748 4 16 0.047029018
11.923143 0.68341571 -0.62202781 5 15 0.047030926
4.3013711 2.6012013 -0.56797475 6 8 0.047041416
2.0346773 0.71704358 -0.50875366 10 1 0.047043085
8.6770105 5.2471261 -0.61635262 6 14 0.047044992
2.8152008 0.99103075 -0.51956147 9 4 0.047046661
4.2674441 1.5013483 -0.55037063 7 7 0.047049999
3.4444599 1.7355815 -0.53654104 14 6 0.047055244
24.91713 8.7488308 -0.46035081 4 19 0.047056913
14.150851 7.1229601 -0.54926378 5 17 0.047062159
2.6664729 0.35411489 -0.51567489 9 3 0.047069073
1.7321115 0.45875949 -0.50311399 6 0 0.047070742
7.7449141 1.0296109 -0.61081946 5 12 0.047072649
2.3645604 0.62660575 -0.51208144 8 2 0.047074318
22.351173 2.9642994 -0.5855757 6 18 0.047075987
3.2562385 0.8623575 -0.52738452 8 5 0.047077656
5.9157724 1.565527 -0.58479518 7 10 0.047081232
5.2003551 0.28283948 -0.54290628 6 9 0.047082901
6.4708943 1.7122939 -0.2907232 27 16 0.04708457
11.917866 0.64347482 -0.62163657 5 15 0.047086477
4.3014627 2.5817955 -0.56684446 5 8 0.047096968
2.0393391 0.71109426 -0.50933641 8 1 0.047098637
8.7114706 5.22861 -0.61757004 5 14 0.047100544
2.8091726 0.97844607 -0.51782674 9 4 0.047102213
4.2632852 1.4831787 -0.54915369 7 7 0.047105551
3.445771 1.7219297 -0.53584605 8 6 0.047110796
24.983786 8.6792812 -0.46104893 4 19 0.047112465
14.210155 7.093864 -0.5506528 5 17 0.04711771
2.6676326 0.34527057 -0.51567489 10 3 0.047124624
1.7266458 0.45119557 -0.50104922 6 0 0.047126293
2.3689916 0.61937839 -0.51260084 6 2 0.047129869
22.200268 2.8655078 -0.58135033 5 18 0.047131538
3.2711759 0.85410005 -0.52933776 7 5 0.047133207
5.9139771 1.5429845 -0.58407766 7 10 0.047136784
5.2037477 0.26571569 -0.54316717 6 9 0.047138453
6.4889154 1.6928457 -0.29126844 10 16 0.047140121
11.907572 0.60124916 -0.62098455 5 15 0.047142029
4.3104491 2.5667648 -0.56684446 6 8 0.047152519
2.0418088 0.70397133 -0.50933641 9 1 0.047154188
8.7339544 5.2007265 -0.61787444 5 14 0.047156096
2.8102436 0.96783149 -0.51739299 9 4 0.047157764
4.2707825 1.4690959 -0.54945791 7 7 0.047161102
3.4561937 1.7120957 -0.53654104 7 6 0.047166348
24.817717 8.5246105 -0.45742753 3 19 0.047168016
14.228113 7.0408907 -0.55039233 5 17 0.047173262
2.6639507 0.33535433 -0.51472169 10 3 0.047180176
1.732866 0.44636109 -0.50242573 6 0 0.047181845
2.3735075 0.6117143 -0.51312017 7 2 0.047185421
22.309328 2.800422 -0.58395052 5 18 0.04718709
3.2741373 0.84267634 -0.52933776 8 5 0.047188759
5.9193268 1.5223315 -0.58407766 7 10 0.047192335
5.192225 0.24697918 -0.54186279 6 9 0.047194004
11.902116 0.55933398 -0.62059337 5 15 0.04719758
4.3086996 2.5453675 -0.56543159 6 8 0.047208071
2.0373518 0.69448221 -0.50758815 12 1 0.04720974
8.7971516 5.1968985 -0.62107033 5 14 0.047211647
2.8159351 0.95881075 -0.51782674 9 4 0.047213316
4.2805824 1.4557785 -0.55006641 7 7 0.047216654
3.4602249 1.6983224 -0.53619349 6 6 0.047221899
24.854424 8.44034 -0.45755842 3 19 0.047223568
14.234662 6.9823732 -0.54969788 5 17 0.047228813
2.6651616 0.3255882 -0.51472169 9 3 0.047235727
1.7228401 0.43706104 -0.49898449 6 0 0.047237396
7.7354779 0.94604576 -0.60925376 4 12 0.047239304
2.3828454 0.60481179 -0.51467824 6 2 0.047240973
22.485662 2.7388389 -0.58830595 6 18 0.047242641
3.2698777 0.8294239 -0.52816582 8 5 0.04724431
5.9128041 1.4975735 -0.58288175 6 10 0.047247887
5.1955791 0.22805202 -0.54212362 6 9 0.047249556
14.200618 3.5947065 -0.63804257 3 16 0.047251225
11.904086 0.51570678 -0.62059337 5 15 0.047253132
4.3222823 2.5320766 -0.56599671 6 8 0.047263622
2.0444903 0.68856514 -0.50875366 9 1 0.047265291
2.8240969 0.95005566 -0.5186941 9 4 0.047268867
4.2858896 1.4400797 -0.55006641 7 7 0.047272205
3.4661322 1.6862336 -0.53619349 6 6 0.047277451
25.335445 8.5002775 -0.46584833 3 19 0.047279119
14.302846 6.9509187 -0.55134726 5 17 0.047284365
2.6760328 0.31741816 -0.51662809 9 3 0.047291279
1.7290194 0.4322066 -0.50036097 6 0 0.047292948
7.7190919 0.91535425 -0.60768807 5 12 0.047294855
2.3730783 0.5935303 -0.51208144 6 2 0.047296524
22.46282 2.6565249 -0.58746088 5 18 0.047298193
3.2824798 0.81982315 -0.52972847 8 5 0.047299862
5.9179955 1.4769249 -0.58288175 6 10 0.047303438
5.1963439 0.20991467 -0.54212362 6 9 0.047305107
14.251854 3.5547831 -0.63978732 4 16 0.047306776
11.890845 0.47356519 -0.61981094 5 15 0.047308683
4.328949 2.515722 -0.56571418 5 8 0.047319174
2.0514939 0.68296319 -0.50991923 8 1 0.047320843
2.8203881 0.93785787 -0.51739299 9 4 0.047324419
4.2812228 1.422726 -0.5488494 7 7 0.047327757
5.678546 1.8842585 -0.41488487 4 13 0.047331333
3.471997 1.6741244 -0.53619349 7 6 0.047333002
14.372035 6.9226518 -0.55308354 5 17 0.047339916
2.6649311 0.3066988 -0.51424509 9 3 0.04734683
1.7258493 0.42502281 -0.49898449 5 0 0.047348499
7.7171326 0.88918495 -0.60729665 4 12 0.047350407
2.3893845 0.58874553 -0.51519758 6 2 0.047352076
22.446676 2.5791745 -0.58681083 5 18 0.047353745
3.2755885 0.80657583 -0.52816582 8 5 0.047355413
5.908361 1.4537278 -0.58144671 6 10 0.04735899
5.1895905 0.19151185 -0.54134101 6 9 0.047360659
14.164122 3.4830587 -0.63531637 4 16 0.047362328
11.889855 0.4340418 -0.61968052 5 15 0.047364235
2.0445125 0.67310935 -0.50758815 9 1 0.047376394
2.8234825 0.9285 -0.51739299 9 4 0.047379971
4.2838054 1.406998 -0.54854518 7 7 0.047383308
5.6776543 1.8630829 -0.41436297 36 13 0.047386885
3.4797616 1.6636729 -0.53654104 6 6 0.047388554
5.6959062 1.866881 -0.10401634 2 19 0.047390223
14.412944 6.883575 -0.55377805 5 17 0.047395468
2.6756918 0.29892859 -0.51615149 17 3 0.047402382
1.7319213 0.42042759 -0.50036097 6 0 0.047404051
7.7003717 0.86004329 -0.60573095 5 12 0.047405958
2.3818171 0.57851535 -0.51312017 7 2 0.047407627
22.246897 2.4776232 -0.58135033 5 18 0.047409296
3.2807841 0.79571801 -0.52855647 8 5 0.047410965
5.9061437 1.4313381 -0.58072913 6 10 0.047414541
5.1951675 0.17446031 -0.54186279 6 9 0.04741621
14.195614 3.4382973 -0.63618875 5 16 0.047417879
2.049161 0.66672224 -0.50817096 14 1 0.047431946
2.8360713 0.92168677 -0.51912779 9 4 0.047435522
4.288691 1.3920362 -0.54854518 7 7 0.04743886
5.6698904 1.8386338 -0.41331926 72 13 0.047442436
3.4833119 1.6504525 -0.53619349 6 6 0.047444105
5.7689662 1.8685682 -0.10523801 5 19 0.047445774
14.506881 6.8663836 -0.55646926 5 17 0.047451019
2.671838 0.28906953 -0.51519823 8 3 0.047457933
1.7240266 0.41215163 -0.49760798 5 0 0.047459602
7.6909375 0.83182812 -0.60475236 5 12 0.04746151
2.3933365 0.57246798 -0.51519758 8 2 0.047463179
22.521288 2.4285536 -0.58830595 6 18 0.047464848
3.2883456 0.78540641 -0.52933776 8 5 0.047466516
5.9111037 1.4107131 -0.58072913 6 10 0.047470093
5.1932592 0.15625399 -0.5416019 6 9 0.047471762
14.280415 3.4061017 -0.63946021 5 16 0.047473431
2.0468478 0.65807408 -0.50700539 12 1 0.046824932
2.8392713 0.91178143 -0.51912779 9 4 0.046828508
4.2958865 1.377816 -0.5488494 7 7 0.046831846
5.6572757 1.8127387 -0.41192761 85 13 0.046835423
3.4915774 1.6387298 -0.53654104 7 6 0.046837091
5.6588097 1.811059 -0.10310008 18 19 0.04683876
14.521712 6.8114562 -0.55612195 5 17 0.046844006
2.6704381 0.27902511 -0.51472169 9 3 0.04685092
1.7231854 0.40528154 -0.49691969 6 0 0.046852589
7.6937943 0.80497658 -0.60475236 5 12 0.046854496
2.3906572 0.56257445 -0.51415884 7 2 0.046856165
23.551695 2.4521112 -0.61502349 21 18 0.046857834
3.2790475 0.77110177 -0.52738452 7 5 0.046859503
5.9041214 1.3861971 -0.57953322 6 10 0.046863079
5.1813688 0.1369106 -0.54029739 6 9 0.046864748
14.22715 3.3383393 -0.63651592 5 16 0.046866417
2.0492461 0.65056759 -0.50700539 10 1 0.046880484
2.8425939 0.90136886 -0.51912779 9 4 0.04688406
4.2890811 1.3583121 -0.54732823 7 7 0.046887398
5.6591263 1.7904856 -0.4115797 92 13 0.046890974
3.4972761 1.626532 -0.53654104 6 6 0.046892643
5.7249913 1.8091494 -0.10419086 27 19 0.046894312
14.619077 6.7918987 -0.5589 5 17 0.046899557
2.6738379 0.26994303 -0.51519823 10 3 0.046906471
1.7222477 0.39872378 -0.49623147 5 0 0.04690814
7.6842928 0.77552998 -0.60377377 5 12 0.046910048
2.394989 0.55477655 -0.51467824 7 2 0.046911716
23.570055 2.3708837 -0.61528355 24 18 0.046913385
3.2866633 0.76018924 -0.52816582 7 5 0.046915054
5.9161978 1.3672588 -0.5802508 6 10 0.046918631
5.1917586 0.1190352 -0.54134101 6 9 0.0469203
14.258184 3.2931519 -0.63738823 5 16 0.046921968
2.0538237 0.64413947 -0.50758815 10 1 0.046936035
2.8410249 0.88996673 -0.51826042 9 4 0.046939611
4.2959294 1.3448236 -0.54763246 7 7 0.046942949
5.6748619 1.7736987 -0.41227549 85 13 0.046946526
3.4984391 1.6122351 -0.53584605 6 6 0.046948195
5.7455869 1.7936269 -0.10445264 9 19 0.046949863
6.3267074 2.9142048 -0.60517639 5 11 0.046951771
14.595045 6.7188697 -0.55707693 5 17 0.046955109
2.6698778 0.26014262 -0.51424509 10 3 0.046962023
1.7330042 0.39483786 -0.49898449 5 0 0.046963692
7.6818619 0.7495634 -0.60338241 5 12 0.046965599
2.4016802 0.54749751 -0.51571691 6 2 0.046967268
3.2795348 0.74709606 -0.52660322 8 5 0.046970606
5.9158463 1.346529 -0.57977241 6 10 0.046974182
5.1821985 0.10073479 -0.54029739 6 9 0.046975851
14.259284 3.2436368 -0.6369521 5 16 0.04697752
3.4705858 1.9195806 -0.44731542 14 8 0.046989918
2.0559485 0.63732517 -0.50758815 9 1 0.046991587
2.846312 0.88127005 -0.5186941 9 4 0.046995163
4.3077083 1.332021 -0.54854518 7 7 0.046998501
5.6902437 1.7578171 -0.41297135 74 13 0.047002077
3.5105171 1.6037215 -0.53688854 6 6 0.047003746
6.348166 2.8972826 -0.60626364 5 11 0.047007322
14.635426 6.6787381 -0.55777144 5 17 0.04701066
2.6731696 0.25151211 -0.51472169 9 3 0.047017574
1.7319583 0.38856453 -0.4982962 5 0 0.047019243
7.6745048 0.72181803 -0.6025995 5 12 0.047021151
2.3891642 0.5363245 -0.51260084 7 2 0.04702282
15.351834 1.4407678 -0.40017807 33 18 0.047024488
3.2893517 0.73726112 -0.52777517 8 5 0.047026157
5.9180818 1.3253274 -0.57953322 6 10 0.047029734
5.1849904 0.083585471 -0.54055828 6 9 0.047031403
14.241271 3.1872997 -0.63564348 5 16 0.047033072
3.4729145 1.9050556 -0.44675028 34 8 0.047045469
2.0604846 0.630858 -0.50817096 9 1 0.047047138
2.8446627 0.86988699 -0.51782674 9 4 0.047050714
4.3052135 1.3147997 -0.54763246 6 7 0.047054052
5.7321234 1.7488687 -0.41558066 37 13 0.047057629
3.5070782 1.5873605 -0.5354985 5 6 0.047059298
6.3514347 2.8720212 -0.60561126 4 11 0.047062874
14.690516 6.6420326 -0.55898678 5 17 0.047066212
2.6740315 0.24217948 -0.51472169 11 3 0.047073126
1.7450409 0.38509697 -0.50173748 6 0 0.047074795
7.6769776 0.69502461 -0.6025995 5 12 0.047076702
2.3981864 0.52955937 -0.51415884 7 2 0.047078371
15.38913 1.3900819 -0.40102315 15 18 0.04708004
3.2870827 0.72471333 -0.52699387 8 5 0.047081709
5.9323936 1.3068005 -0.58048993 6 10 0.047085285
5.1902227 0.065540642 -0.54108012 6 9 0.047086954
14.276704 3.1429365 -0.63673401 5 16 0.047088623
3.468646 1.8869627 -0.44533738 39 8 0.047101021
2.0603478 0.62295657 -0.50758815 9 1 0.04710269
3.5342255 1.918849 -0.24319294 8 14 0.047104597
2.8500383 0.86066478 -0.51826042 9 4 0.047106266
4.3097768 1.2997638 -0.54763246 7 7 0.047109604
6.0080085 1.8102084 -0.43523768 44 13 0.04711318
3.5128725 1.5744958 -0.5354985 6 6 0.047114849
6.3614211 2.8498333 -0.60561126 5 11 0.047118425
14.704492 6.5866237 -0.55863953 5 17 0.047121763
2.6822371 0.23299824 -0.51615149 9 3 0.047128677
1.7417421 0.37768352 -0.50036097 6 0 0.047130346
2.3953311 0.51973164 -0.51312017 7 2 0.047133923
3.3016593 0.71584612 -0.52894717 8 5 0.04713726
5.9322791 1.2839967 -0.58001161 6 10 0.047140837
5.1854558 0.046480633 -0.54055828 6 9 0.047142506
14.285686 3.0900607 -0.63662493 5 16 0.047144175
3.4733551 1.8730532 -0.44505483 44 8 0.047156572
2.071934 0.61818719 -0.50991923 8 1 0.047158241
3.4929483 1.8797632 -0.23984486 36 14 0.047160149
2.8484554 0.84880459 -0.51739299 9 4 0.047161818
4.3097553 1.2825418 -0.54702401 7 7 0.047165155
6.069582 1.8045347 -0.43923867 73 13 0.047168732
3.5251305 1.5652484 -0.53654104 6 6 0.047170401
6.1654205 1.8307148 -0.11165176 6 19 0.04717207
6.3672724 2.824475 -0.60517639 5 11 0.047173977
14.751369 6.5428224 -0.55950767 5 17 0.047177315
2.6708035 0.22264142 -0.51376849 10 3 0.047184229
1.7406991 0.37110212 -0.49967271 5 0 0.047185898
2.3947389 0.51085836 -0.51260084 6 2 0.047189474
3.3018456 0.70322663 -0.52855647 8 5 0.047192812
5.9415932 1.264316 -0.58048993 6 10 0.047196388
5.1830997 0.028370187 -0.54029739 6 9 0.047198057
14.271955 3.0349827 -0.63553447 5 16 0.047199726
3.4711206 1.856213 -0.44392455 54 8 0.047212124
2.069416 0.60957408 -0.50875366 10 1 0.047213793
3.5126824 1.8746365 -0.24075797 60 14 0.0472157
2.8537624 0.83955252 -0.51782674 9 4 0.047217369
4.3092237 1.2668419 -0.54641551 7 7 0.047220707
6.0590944 1.7784166 -0.438021 92 13 0.047224283
3.5283082 1.5519335 -0.53619349 6 6 0.047225952
6.0974188 1.787369 -0.1102992 19 19 0.047227621
6.3743248 2.8023405 -0.60495889 5 11 0.047229528
14.794703 6.5003443 -0.56028903 5 17 0.047232866
2.6813517 0.21407717 -0.51567489 12 3 0.04723978
1.7396311 0.36453259 -0.49898449 5 0 0.047241449
2.4060822 0.50449806 -0.51467824 7 2 0.047245026
22.655054 1.8047101 -0.59025615 1 18 0.047246695
3.2993252 0.69126272 -0.52777517 9 5 0.047248363
5.9287024 1.2410409 -0.5788157 6 10 0.04725194
5.1781945 0.010275883 -0.53977561 6 9 0.047253609
14.294165 2.9901948 -0.63607967 4 16 0.047255278
3.4882159 1.8505363 -0.44533738 44 8 0.047267675
2.0714259 0.60270828 -0.50875366 10 1 0.047269344
3.5365024 1.8723558 -0.24197546 28 14 0.047271252
2.8565309 0.83008444 -0.51782674 9 4 0.047272921
4.3136196 1.2517922 -0.54641551 7 7 0.047276258
6.0769334 1.7617888 -0.43889076 92 13 0.047279835
3.5334353 1.5402247 -0.53619349 7 6 0.047281504
6.1225185 1.772705 -0.11064824 22 19 0.047283173
6.3886333 2.7820654 -0.60539383 5 11 0.04728508
14.857406 6.4692168 -0.56185162 5 17 0.047288418
2.6747048 0.20463869 -0.51424509 8 3 0.047295332
1.7431847 0.35924503 -0.49967271 5 0 0.047297001
2.4029512 0.49553129 -0.51363951 6 2 0.047300577
21.838861 1.6632077 -0.56880414 4 18 0.047302246
3.2968807 0.67874783 -0.52699387 8 5 0.047303915
5.9281235 1.2193367 -0.57833737 6 10 0.047307491
5.1806865 -0.0069030626 -0.5400365 6 9 0.04730916
14.284944 2.9362593 -0.6352073 5 16 0.047310829
3.4902623 1.8360265 -0.44477224 38 8 0.047323227
2.0688448 0.59412885 -0.50758815 12 1 0.047324896
2.859411 0.82010823 -0.51782674 9 4 0.047328472
4.3251185 1.2387792 -0.54732823 7 7 0.04733181
6.0854435 1.7412521 -0.43906471 84 13 0.047335386
3.5365186 1.5268966 -0.53584605 6 6 0.047337055
6.1382828 1.754072 -0.11082277 3 19 0.047338724
14.889072 6.4212761 -0.56219888 5 17 0.047343969
2.677851 0.19547433 -0.51472169 9 3 0.047350883
1.7538518 0.35505819 -0.50242573 6 0 0.047352552
2.4142547 0.48907721 -0.51571691 7 2 0.047356129
21.809637 1.5844396 -0.56789404 46 18 0.047357798
3.3089116 0.66918939 -0.52855647 8 5 0.047359467
5.934782 1.1991285 -0.57857651 6 10 0.047363043
5.1681991 -0.024906714 -0.53873211 6 9 0.047364712
14.24614 2.8764956 -0.63302636 5 16 0.047366381
3.5230489 1.8376741 -0.44816315 33 8 0.047378778
2.0709062 0.58690369 -0.50758815 13 1 0.047380447
2.8669939 0.81146526 -0.5186941 9 4 0.047384024
4.3174787 1.220296 -0.54580706 7 7 0.047387362
6.1010847 1.722712 -0.43976054 66 13 0.047390938
3.5398161 1.5129479 -0.5354985 7 6 0.047392607
26.597231 7.5047922 -0.48177364 21 19 0.047394276
14.936665 6.3800688 -0.5631538 5 17 0.047399521
2.6736519 0.18532948 -0.51376849 9 3 0.047406435
1.7480685 0.34722838 -0.50036097 6 0 0.047408104
2.4064357 0.47832358 -0.51363951 6 2 0.04741168
21.860176 1.5075759 -0.56906414 28 18 0.047413349
3.2991166 0.65523481 -0.52660322 8 5 0.047415018
5.9318142 1.1759183 -0.57785898 6 10 0.047418594
5.1631007 -0.043798603 -0.53821033 5 9 0.047420263
14.317839 2.8363895 -0.63575256 5 16 0.047421932
3.5231483 1.8213129 -0.44731542 15 8 0.04743433
2.06602 0.57734191 -0.50583982 9 1 0.047435999
2.8699489 0.80095184 -0.5186941 9 4 0.047439575
4.3267021 1.2057972 -0.54641551 7 7 0.047442913
6.1097603 1.7010086 -0.43993449 30 13 0.047446489
3.5427976 1.4996139 -0.535151 6 6 0.047448158
14.989861 6.3379407 -0.56428242 5 17 0.047455072
2.6767316 0.17615138 -0.51424509 9 3 0.047461987
1.7469106 0.3406662 -0.49967271 5 0 0.047463655
2.4032896 0.46898657 -0.51260084 6 2 0.047467232
19.396383 1.2703042 -0.50470799 34 18 0.047468901
3.3063438 0.64408094 -0.52738452 8 5 0.04747057
5.9358826 1.1552052 -0.57785898 6 10 0.047474146
5.1579442 -0.061753228 -0.53768855 6 9 0.047475815
14.288424 2.7787688 -0.63400775 5 16 0.047477484
2.0750527 0.57206964 -0.50758815 10 1 0.046828985
2.8774741 0.79223818 -0.51956147 8 4 0.046832561
4.3354616 1.1927606 -0.54702401 7 7 0.046835899
6.3753729 1.7510614 -0.45872173 5 13 0.046839476
3.5502923 1.4881986 -0.5354985 6 6 0.046841145
15.028023 6.2923379 -0.56489009 5 17 0.046848059
2.6773303 0.16680676 -0.51424509 8 3 0.046854973
1.7433671 0.33366638 -0.4982962 5 0 0.046856642
2.4097164 0.46151197 -0.51363951 6 2 0.046860218
19.410465 1.2065938 -0.50496805 38 18 0.046861887
3.3036103 0.63218683 -0.52660322 8 5 0.046863556
5.934792 1.1345813 -0.5773806 6 10 0.046867132
5.1626697 -0.079842485 -0.53821033 6 9 0.046868801
14.295107 2.7309029 -0.63389874 5 16 0.04687047
2.0769384 0.56518537 -0.50758815 10 1 0.046884537
2.8705828 0.78010464 -0.51782674 8 4 0.046888113
4.3419933 1.1782703 -0.54732823 7 7 0.046891451
6.4292831 1.7429712 -0.46220085 34 13 0.046895027
3.548353 1.4735583 -0.53445601 7 6 0.046896696
15.07419 6.2530088 -0.56584501 5 17 0.04690361
2.6778688 0.15792748 -0.51424509 9 3 0.046910524
1.7468264 0.32832545 -0.49898449 6 0 0.046912193
2.4088299 0.45306784 -0.51312017 8 2 0.04691577
3.3033698 0.62019664 -0.52621257 9 5 0.046919107
5.9411621 1.1143165 -0.57761979 6 10 0.046922684
5.1524334 -0.096759006 -0.53716677 5 9 0.046924353
14.324192 2.6846662 -0.63477111 5 16 0.046926022
2.0718555 0.55603701 -0.50583982 9 1 0.046940088
2.8827999 0.77263361 -0.51956147 9 4 0.046943665
4.3436828 1.1624645 -0.54702401 7 7 0.046947002
6.4305096 1.719229 -0.46185294 70 13 0.046950579
3.5560181 1.4614875 -0.53480351 6 6 0.046952248
15.132896 6.2155528 -0.56723398 5 17 0.046959162
2.6759787 0.14798141 -0.51376849 12 3 0.046966076
1.748018 0.32192078 -0.49898449 6 0 0.046967745
2.4152846 0.44511977 -0.51415884 7 2 0.046971321
22.864786 1.256114 -0.59474158 1 18 0.04697299
3.3055146 0.60866195 -0.52621257 9 5 0.046974659
5.9476542 1.0929826 -0.57785898 6 10 0.046978235
5.1545296 -0.11570285 -0.53742766 6 9 0.046979904
14.245498 2.6159158 -0.63084537 5 16 0.046981573
11.757346 -0.27068341 -0.61250824 7 15 0.04698348
4.4561715 2.2277954 -0.56288838 6 8 0.046993971
2.0856295 0.55155492 -0.50875366 9 1 0.04699564
9.5250072 4.7623506 -0.64739853 4 14 0.046997547
2.8784719 0.7601732 -0.51826042 9 4 0.046999216
4.3455148 1.1459029 -0.54671973 7 7 0.047002554
6.4391794 1.6962843 -0.46202689 68 13 0.04700613
3.56339 1.4500026 -0.535151 7 6 0.047007799
26.321705 6.9285197 -0.47448727 1 19 0.047009468
15.157891 6.1609879 -0.56732082 5 17 0.047014713
2.6789303 0.13876119 -0.51424509 8 3 0.047021627
1.7538621 0.3166675 -0.50036097 6 0 0.047023296
2.4071968 0.4349522 -0.51208144 7 2 0.047026873
22.814123 1.1734831 -0.59331143 2 18 0.047028542
3.3150144 0.59785438 -0.52738452 8 5 0.04703021
5.9342885 1.0691301 -0.57618475 6 10 0.047033787
5.1491232 -0.13355769 -0.53690588 6 9 0.047035456
14.279123 2.5705965 -0.63193583 5 16 0.047037125
4.4683681 2.2144401 -0.5634535 5 8 0.047049522
2.0851901 0.54365647 -0.50817096 9 1 0.047051191
2.8739607 0.7482565 -0.51695937 9 4 0.047054768
4.3444886 1.1302353 -0.54611123 7 7 0.047058105
6.4523025 1.6756791 -0.46254876 39 13 0.047061682
3.5592499 1.4338405 -0.53376102 6 6 0.047063351
26.236853 6.8083386 -0.47252387 3 19 0.04706502
15.186256 6.1108398 -0.56758124 5 17 0.047070265
2.6695921 0.12895697 -0.5123387 7 3 0.047077179
1.7407551 0.30804187 -0.49623147 6 0 0.047078848
2.4159253 0.42782211 -0.51363951 6 2 0.047082424
22.852837 1.0994948 -0.59422153 4 18 0.047084093
3.3048201 0.58471209 -0.52543128 8 5 0.047085762
5.9427028 1.0503105 -0.57666308 6 10 0.047089338
5.1486259 -0.15153068 -0.53690588 5 9 0.047091007
14.28511 2.5227973 -0.63182682 5 16 0.047092676
4.4712324 2.1974118 -0.56288838 5 8 0.047105074
2.0869813 0.53673875 -0.50817096 9 1 0.047106743
9.6176453 4.7271733 -0.6515075 5 14 0.04710865
2.8788104 0.73933548 -0.51739299 9 4 0.047110319
4.3484073 1.1150633 -0.54611123 8 7 0.047113657
6.4626551 1.6555119 -0.46289667 6 13 0.047117233
3.5731773 1.4257139 -0.535151 7 6 0.047118902
26.113997 6.6841002 -0.469906 3 19 0.047120571
15.222681 6.0669274 -0.56818891 4 17 0.047125816
2.6700051 0.12010358 -0.5123387 8 3 0.04713273
1.7488719 0.30349484 -0.4982962 5 0 0.047134399
2.4125111 0.41897407 -0.51260084 6 2 0.047137976
22.926443 1.0228179 -0.59604168 4 18 0.047139645
3.3092744 0.5735932 -0.52582192 8 5 0.047141314
5.9365244 1.0278642 -0.57570636 6 10 0.04714489
5.1406403 -0.16834688 -0.53612322 5 9 0.047146559
14.276603 2.4699385 -0.63106346 5 16 0.047148228
4.4833374 2.183974 -0.5634535 6 8 0.047160625
2.079417 0.5270552 -0.50583982 9 1 0.047162294
9.6677256 4.7099924 -0.6537903 5 14 0.047164202
2.8813739 0.72928202 -0.51739299 9 4 0.047165871
27.918409 13.601254 -0.26530468 23 20 0.04716754
4.3498678 1.0992692 -0.54580706 8 7 0.047169209
3.5691731 1.4089577 -0.53376102 6 6 0.047174454
15.248416 6.0155892 -0.56836259 4 17 0.047181368
2.6777842 0.11060448 -0.51376849 8 3 0.047188282
1.7523425 0.29748327 -0.49898449 6 0 0.047189951
7.5623088 0.31350204 -0.59163964 4 12 0.047191858
2.4140308 0.41012898 -0.51260084 7 2 0.047193527
22.840141 0.93512368 -0.59370148 5 18 0.047195196
3.3112564 0.56203824 -0.52582192 9 5 0.047196865
5.945159 1.0069288 -0.57618475 6 10 0.047200441
5.1424732 -0.18728173 -0.53638411 5 9 0.04720211
14.26832 2.41468 -0.6303001 5 16 0.047203779
4.4846067 2.1642771 -0.5626058 5 8 0.047216177
2.093127 0.52238125 -0.50875366 9 1 0.047217846
9.7118788 4.6875639 -0.65561652 5 14 0.047219753
2.8888049 0.71990937 -0.51826042 8 4 0.047221422
27.893785 13.462955 -0.26459914 1 20 0.047223091
4.35146 1.0827188 -0.54550278 7 7 0.04722476
3.583288 1.4001085 -0.535151 6 6 0.047230005
15.293633 5.9687529 -0.56923074 5 17 0.047236919
2.6707962 0.1009945 -0.5123387 8 3 0.047243834
1.7486278 0.29058042 -0.49760798 6 0 0.047245502
7.5584264 0.28559831 -0.59124821 5 12 0.04724741
2.4178603 0.40209976 -0.51312017 6 2 0.047249079
22.885725 0.85697013 -0.59480661 5 18 0.047250748
3.3059852 0.54868811 -0.52464992 9 5 0.047252417
5.9461823 0.98576379 -0.57594556 6 10 0.047255993
5.1368198 -0.20502466 -0.53586233 5 9 0.047257662
14.286518 2.3664916 -0.63073635 5 16 0.047259331
4.4966121 2.1507607 -0.56317097 6 8 0.047271729
2.0854959 0.51274377 -0.50642258 10 1 0.047273397
9.7664375 4.6719718 -0.65820372 4 14 0.047275305
2.8889096 0.70923305 -0.51782674 9 4 0.047276974
4.3622556 1.0700585 -0.54641551 7 7 0.047280312
3.5789225 1.3840059 -0.53376102 6 6 0.047285557
15.326026 5.9198365 -0.56966472 4 17 0.047292471
2.6662266 0.09151347 -0.5113855 8 3 0.047299385
1.7591215 0.28601018 -0.50036097 6 0 0.047301054
7.5493684 0.26019633 -0.59046537 5 12 0.047302961
2.421663 0.39404884 -0.51363951 7 2 0.04730463
22.888441 0.78107369 -0.59480661 5 18 0.047306299
3.3102245 0.53811735 -0.52504057 8 5 0.047307968
5.9445057 0.96524346 -0.57546717 6 10 0.047311544
5.1410408 -0.2231781 -0.53638411 6 9 0.047313213
14.30415 2.3207014 -0.63117248 5 16 0.047314882
4.4947491 2.1315646 -0.56204069 5 8 0.04732728
2.0919094 0.50697351 -0.50758815 10 1 0.047328949
9.7908907 4.6438432 -0.65881246 4 14 0.047330856
2.8960309 0.70080954 -0.5186941 9 4 0.047332525
4.3587289 1.0530745 -0.54550278 7 7 0.047335863
3.5904241 1.3747967 -0.53480351 6 6 0.047341108
6.4361706 2.461751 -0.59865272 5 11 0.047344685
15.354905 5.8725548 -0.57001197 4 17 0.047348022
2.6714218 0.082812771 -0.5123387 10 3 0.047354937
1.7576866 0.27979916 -0.49967271 6 0 0.047356606
7.5502305 0.23384255 -0.59046537 4 12 0.047358513
2.420541 0.38563275 -0.51312017 6 2 0.047360182
22.980957 0.70390517 -0.59714681 5 18 0.047361851
3.3096435 0.52617252 -0.52464992 8 5 0.04736352
5.9355497 0.94253892 -0.57427132 5 10 0.047367096
5.1328216 -0.23986472 -0.53560144 6 9 0.047368765
14.309695 2.2703655 -0.63106346 5 16 0.047370434
4.4976692 2.1137414 -0.56147552 6 8 0.047382832
2.0818446 0.4968389 -0.50467432 16 1 0.047384501
9.8476753 4.628777 -0.66155177 5 14 0.047386408
2.8936698 0.68955255 -0.51782674 9 4 0.047388077
4.3672056 1.0390034 -0.54611123 7 7 0.047391415
3.5884974 1.3589869 -0.53376102 6 6 0.04739666
30.04487 7.1341367 -0.53840667 12 19 0.047398329
6.4493823 2.4410365 -0.5990876 5 11 0.047400236
15.38933 5.8242321 -0.57053292 5 17 0.047403574
2.6717074 0.073020965 -0.5123387 8 3 0.047410488
1.7563252 0.27298775 -0.49898449 5 0 0.047412157
7.5410347 0.2072197 -0.58968246 4 12 0.047414064
2.424355 0.37713292 -0.51363951 7 2 0.047415733
22.988379 0.61980444 -0.59727681 4 18 0.047417402
3.3114603 0.51461643 -0.52464992 8 5 0.047419071
5.9438829 0.92153907 -0.57474965 6 10 0.047422647
5.1269422 -0.25841734 -0.53507972 5 9 0.047424316
14.340136 2.2213414 -0.63204491 5 16 0.047425985
4.5098872 2.0993466 -0.56204069 5 8 0.047438383
2.0883844 0.49031961 -0.50583982 14 1 0.047440052
9.8871889 4.6032023 -0.66307366 4 14 0.047441959
2.8985748 0.67950517 -0.51826042 9 4 0.047443628
4.3709841 1.0229897 -0.54611123 7 7 0.047446966
3.6024871 1.3499415 -0.535151 6 6 0.047452211
30.085424 7.0273809 -0.53866851 22 19 0.04745388
6.4419637 2.4112568 -0.59756541 5 11 0.047455788
15.417593 5.7704182 -0.57079333 5 17 0.047459126
2.6768529 0.063800745 -0.5132919 8 3 0.04746604
1.7620202 0.26757333 -0.50036097 6 0 0.047467709
7.5442357 0.17963645 -0.5898782 6 12 0.047469616
2.4184027 0.36756977 -0.51208144 6 2 0.047471285
22.525682 0.52876681 -0.58518565 4 18 0.047472954
3.3230901 0.50395286 -0.52621257 8 5 0.047474623
5.944603 0.90041327 -0.57451046 6 10 0.047478199
5.1384215 -0.27700177 -0.53638411 6 9 0.047479868
14.318168 2.1667895 -0.63073635 5 16 0.047481537
4.5126796 2.0815029 -0.56147552 6 8 0.050809383
2.0853467 0.48192894 -0.50467432 11 1 0.050811052
9.934907 4.5833206 -0.66520423 4 14 0.05081296
2.8985302 0.66882837 -0.51782674 9 4 0.050814629
4.3840241 1.0107223 -0.54732823 7 7 0.050817966
3.595577 1.3330373 -0.53341353 6 6 0.050823212
6.461597 2.3942177 -0.59865272 5 11 0.050826788
15.461068 5.7252493 -0.57166147 5 17 0.050830126
2.6696982 0.054322764 -0.5118621 8 3 0.05083704
1.7605658 0.26107043 -0.49967271 6 0 0.050838709
7.5373135 0.15447041 -0.58929104 6 12 0.050840616
2.4245095 0.35984105 -0.51312017 6 2 0.050842285
22.669735 0.45690021 -0.58889103 5 18 0.050843954
3.3149719 0.49148577 -0.52464992 8 5 0.050845623
5.9401712 0.87960345 -0.57379293 5 10 0.050849199
5.1299772 -0.29449672 -0.53560144 5 9 0.050850868
14.300567 2.115644 -0.62964582 5 16 0.050852537
4.5173006 2.06549 -0.56119293 5 8 0.050864935
2.0869336 0.47501102 -0.50467432 10 1 0.050866604
9.9908857 4.5690627 -0.6679436 4 14 0.050868511
2.907934 0.66085303 -0.51912779 9 4 0.05087018
4.3826857 0.99431348 -0.54671973 7 7 0.050873518
3.6046238 1.3228196 -0.53410852 6 6 0.050878763
26.26119 5.9457235 -0.46938244 2 19 0.050880432
6.4699149 2.3716478 -0.59865272 6 11 0.050882339
15.489352 5.6773906 -0.57200873 5 17 0.050885677
2.6723175 0.045505829 -0.5123387 8 3 0.050892591
1.7661796 0.25591636 -0.50104922 6 0 0.05089426
7.535315 0.12811889 -0.58909535 6 12 0.050896168
2.423269 0.35144946 -0.51260084 6 2 0.050897837
22.72117 0.37858531 -0.59019119 6 18 0.050899506
3.3239996 0.48096928 -0.52582192 9 5 0.050901175
5.9407425 0.85850769 -0.57355374 5 10 0.050904751
5.1240096 -0.3111971 -0.53507972 6 9 0.05090642
4.5290046 2.0517669 -0.5617581 6 8 0.050920486
2.090951 0.46825618 -0.50525713 8 1 0.050922155
10.040856 4.5496349 -0.6702264 5 14 0.050924063
2.9078207 0.65016007 -0.5186941 9 4 0.050925732
25.158966 11.398007 -0.23592855 10 20 0.050927401
4.3861299 0.97900897 -0.54671973 8 7 0.05092907
3.609448 1.3095992 -0.53410852 6 6 0.050934315
26.496487 5.9018531 -0.47322199 3 19 0.050935984
6.4758139 2.3481984 -0.59843522 6 11 0.050937891
15.537258 5.6335173 -0.5730505 5 17 0.050941229
2.6700125 0.03568358 -0.5118621 8 3 0.050948143
1.7623456 0.2487731 -0.49967271 6 0 0.050949812
7.5182714 0.10159267 -0.58772534 6 12 0.050951719
2.4293842 0.34324691 -0.51363951 7 2 0.050953388
22.689919 0.29489157 -0.58934605 5 18 0.050955057
3.3158774 0.467987 -0.52425927 9 5 0.050956726
5.9463129 0.83707434 -0.57379293 5 10 0.050960302
5.1129103 -0.32931975 -0.5340361 6 9 0.050961971
11.223697 1.5787561 -0.49333525 7 16 0.05096364
4.5251713 2.0300505 -0.56034523 6 8 0.050976038
2.1068969 0.46373403 -0.50875366 9 1 0.050977707
10.087049 4.5261049 -0.67220479 5 14 0.050979614
2.9101841 0.63949805 -0.5186941 8 4 0.050981283
25.189169 11.300598 -0.23582165 16 20 0.050982952
4.3824182 0.96132922 -0.54580706 7 7 0.050984621
3.6209843 1.2995113 -0.535151 6 6 0.050989866
15.560152 5.5773764 -0.57313722 5 17 0.05099678
2.6725748 0.026382124 -0.5123387 7 3 0.051003695
1.7584406 0.2419683 -0.4982962 5 0 0.051005363
7.511117 0.073968291 -0.58713824 6 12 0.051007271
2.4305675 0.33476469 -0.51363951 5 2 0.05100894
22.803267 0.21672748 -0.59227139 5 18 0.051010609
3.3249099 0.45683599 -0.52543128 8 5 0.051012278
5.9491992 0.81631273 -0.57379293 5 10 0.051015854
5.1191707 -0.34768283 -0.53481883 5 9 0.051017523
11.159853 1.5300773 -0.49028191 42 16 0.051019192
4.5458388 2.0203185 -0.56204069 6 8 0.05103159
2.1013751 0.45482928 -0.50700539 13 1 0.051033258
10.121023 4.4989905 -0.67342228 5 14 0.051035166
2.9099925 0.62881458 -0.51826042 9 4 0.051036835
4.3831568 0.94626695 -0.54550278 7 7 0.051040173
3.6161709 1.2835369 -0.53376102 6 6 0.051045418
15.612489 5.5347261 -0.57435262 5 17 0.051052332
2.6677423 0.017032377 -0.5113855 8 3 0.051059246
1.7664216 0.23678109 -0.50036097 6 0 0.051060915
7.5113211 0.049060129 -0.58713824 6 12 0.051062822
2.4268734 0.32563069 -0.51260084 8 2 0.051064491
22.648916 0.14018846 -0.58824098 5 18 0.05106616
3.3215113 0.44515362 -0.52464992 8 5 0.051067829
5.9494066 0.7962504 -0.57355374 6 10 0.051071405
5.108007 -0.36482507 -0.53377521 5 9 0.051073074
11.172293 1.4940538 -0.49060902 41 16 0.051074743
4.5525136 2.0052328 -0.56204069 6 8 0.051087141
2.1052496 0.44836628 -0.50758815 9 1 0.05108881
10.156432 4.474473 -0.67479199 5 14 0.051090717
2.9048376 0.61762178 -0.51695937 9 4 0.051092386
4.3767242 0.92889738 -0.54428583 8 7 0.051095724
3.6250765 1.2731862 -0.53445601 6 6 0.051100969
15.644904 5.4878912 -0.57487357 5 17 0.051107883
2.6726925 0.0081900144 -0.5123387 9 3 0.051114798
1.7671971 0.23092213 -0.50036097 6 0 0.051116467
7.5039692 0.02282346 -0.58655107 5 12 0.051118374
2.4255149 0.31726527 -0.51208144 8 2 0.051120043
22.754232 0.061384607 -0.59097123 5 18 0.051121712
3.3279424 0.43419361 -0.52543128 8 5 0.051123381
5.9422789 0.77419442 -0.57259703 5 10 0.051126957
5.1142068 -0.38233018 -0.53455794 5 9 0.051128626
11.199731 1.4579452 -0.49159047 7 16 0.051130295
4.5663104 1.9923213 -0.56288838 6 8 0.051142693
2.1068017 0.44101486 -0.50758815 9 1 0.051144361
10.20857 4.4549904 -0.67722696 5 14 0.051146269
2.9069757 0.6074782 -0.51695937 9 4 0.051147938
4.3872271 0.91513652 -0.54519856 7 7 0.051151276
3.6250434 1.2582603 -0.53376102 6 6 0.051156521
26.661957 5.54916 -0.47474906 3 19 0.05115819
15.685205 5.4406219 -0.5756548 5 17 0.051163435
2.6776128 -0.0016196542 -0.5132919 9 3 0.051170349
1.7608781 0.22354104 -0.4982962 5 0 0.051172018
7.4965262 -0.0033612852 -0.5859639 5 12 0.051173925
2.421809 0.30775934 -0.51104277 8 2 0.051175594
22.844273 -0.022124145 -0.59331143 5 18 0.051177263
3.324538 0.42195442 -0.52464992 8 5 0.051178932
5.9401388 0.75178593 -0.5721187 5 10 0.051182508
5.1053357 -0.40047649 -0.53377521 5 9 0.051184177
4.5599103 1.9696381 -0.56119293 6 8 0.051198244
2.110785 0.43378103 -0.50817096 10 1 0.051199913
10.279788 4.4413381 -0.68087935 5 14 0.05120182
2.9019475 0.59533173 -0.51565826 9 4 0.051203489
4.3832588 0.8975547 -0.54428583 7 7 0.051206827
3.6317539 1.2464062 -0.53410852 6 6 0.051212072
26.498442 5.4138651 -0.47147673 3 19 0.051213741
15.759396 5.4017491 -0.57765156 5 17 0.051218987
2.6751368 -0.010950837 -0.5128153 8 3 0.051225901
1.7640332 0.21768557 -0.49898449 6 0 0.05122757
7.4864945 -0.030788688 -0.58518112 5 12 0.051229477
2.4301503 0.30019912 -0.51260084 8 2 0.051231146
22.811569 -0.10171231 -0.59246635 5 18 0.051232815
3.3285131 0.4100675 -0.52504057 8 5 0.051234484
5.9377866 0.73043978 -0.57164031 6 10 0.05123806
5.1063843 -0.41850218 -0.5340361 6 9 0.051239729
14.353252 1.763723 -0.62986392 1 16 0.051241398
4.5713215 1.9556707 -0.5617581 6 8 0.051253796
2.09799 0.42351472 -0.50467432 9 1 0.051255465
10.334217 4.4221468 -0.68346655 5 14 0.051257372
2.9088349 0.58617347 -0.51652569 8 4 0.051259041
4.3837786 0.88252389 -0.54398155 7 7 0.051262379
3.6360826 1.2337214 -0.53410852 6 6 0.051267624
15.742664 5.3346648 -0.57634932 5 17 0.051274538
2.6775362 -0.020312726 -0.5132919 7 3 0.051281452
1.7719419 0.21237907 -0.50104922 5 0 0.051283121
7.4913359 -0.055655517 -0.58557254 6 12 0.051285028
2.426327 0.29113454 -0.51156211 9 2 0.051286697
22.673655 -0.17625408 -0.58889103 4 18 0.051288366
3.3323066 0.3993203 -0.52543128 9 5 0.051290035
5.942647 0.7110405 -0.57187951 5 10 0.051293612
5.0999384 -0.43589261 -0.53351432 6 9 0.05129528
14.257343 1.7039737 -0.62539291 3 16 0.051296949
4.5777812 1.940501 -0.5617581 6 8 0.051309347
2.1065357 0.4179793 -0.50642258 8 1 0.051311016
10.364902 4.3946834 -0.68453187 5 14 0.051312923
2.9107625 0.5765242 -0.51652569 9 4 0.051314592
4.394135 0.86866224 -0.54489434 8 7 0.05131793
3.6401536 1.2216569 -0.53410852 6 6 0.051323175
15.783955 5.290379 -0.57721746 1 17 0.05133009
2.6676383 -0.029063148 -0.5113855 9 3 0.051337004
1.7678615 0.20594946 -0.49967271 6 0 0.051338673
7.4886036 -0.081775673 -0.5853768 5 12 0.05134058
2.4369955 0.28421465 -0.51363951 9 2 0.051342249
22.667906 -0.25534126 -0.58876103 4 18 0.051343918
3.3238688 0.386549 -0.52386862 8 5 0.051345587
5.9401488 0.6897195 -0.57140112 6 10 0.051349163
5.1083703 -0.4536984 -0.53455794 5 9 0.051350832
14.30042 1.6585084 -0.6270287 3 16 0.051352501
4.5822387 1.9235444 -0.56147552 6 8 0.051364899
2.10321 0.40969086 -0.50525713 9 1 0.051366568
10.439979 4.3836389 -0.68848866 6 14 0.051368475
2.9200072 0.5677734 -0.51782674 9 4 0.051370144
4.3873973 0.85142457 -0.54367733 8 7 0.051373482
3.6420474 1.2081597 -0.53376102 7 6 0.051378727
5.7116385 1.89161 -0.52232611 9 11 0.051382303
2.6675205 -0.038374767 -0.5113855 8 3 0.051392555
1.7757349 0.20058092 -0.50173748 6 0 0.051394224
7.4882727 -0.10791528 -0.5853768 5 12 0.051396132
2.4331126 0.27515933 -0.51260084 8 2 0.0513978
22.796816 -0.33641601 -0.59214133 5 18 0.051399469
3.3251977 0.37494415 -0.52386862 8 5 0.051401138
5.9326282 0.66786903 -0.57044441 5 10 0.051404715
5.1018043 -0.47106177 -0.5340361 5 9 0.051406384
14.323495 1.6105324 -0.627792 4 16 0.051408052
4.591217 1.9084949 -0.5617581 5 8 0.05142045
2.1117899 0.40372092 -0.50700539 10 1 0.051422119
10.492073 4.3625264 -0.69092363 6 14 0.051424026
2.919553 0.5571146 -0.51739299 9 4 0.051425695
4.4000921 0.83796442 -0.54489434 7 7 0.051429033
3.6485937 1.1962142 -0.53410852 6 6 0.051434278
5.6803474 1.8592283 -0.51884681 17 11 0.051437855
5.7207508 1.8691924 -0.20791635 7 17 0.051441193
2.6624634 -0.04758741 -0.51043236 9 3 0.051448107
1.7716455 0.1938621 -0.50036097 7 0 0.051449776
7.4828663 -0.13396049 -0.58498538 6 12 0.051451683
2.4413517 0.26745936 -0.51415884 8 2 0.051453352
22.713043 -0.41446397 -0.5899961 5 18 0.051455021
3.3264863 0.36333477 -0.52386862 9 5 0.05145669
5.937397 0.64742541 -0.57068354 5 10 0.051460266
5.1050782 -0.48935017 -0.53455794 6 9 0.051461935
14.314132 1.5589032 -0.62713772 4 16 0.051463604
4.5958858 1.8907057 -0.56147552 5 8 0.050816298
2.1156447 0.39642739 -0.50758815 9 1 0.050817966
10.517218 4.3278465 -0.69153237 6 14 0.050819874
2.9239953 0.54686385 -0.51782674 9 4 0.050821543
4.3981128 0.82168722 -0.54428583 8 7 0.050824881
3.643537 1.1797682 -0.53271854 6 6 0.050830126
25.306149 4.7116785 -0.44870132 1 19 0.050831795
5.6725893 1.8347762 -0.51754212 25 11 0.050833702
5.6705151 1.8297422 -0.20583284 46 17 0.05083704
2.6598172 -0.057287257 -0.50995576 8 3 0.050843954
1.7603928 0.18611336 -0.49691969 6 0 0.050845623
7.4649119 -0.15969308 -0.58361542 6 12 0.05084753
2.4374514 0.25799748 -0.51312017 7 2 0.050849199
22.808903 -0.49588802 -0.59253138 5 18 0.050850868
3.3203671 0.35094535 -0.52269667 8 5 0.050852537
5.9297218 0.62565392 -0.56972688 5 10 0.050856113
5.10325 -0.50805795 -0.53455794 6 9 0.050857782
14.344325 1.5115432 -0.62822825 5 16 0.050859451
4.6021304 1.8754547 -0.56147552 5 8 0.050871849
2.1073849 0.38764402 -0.50525713 13 1 0.050873518
10.568473 4.3080449 -0.69396734 6 14 0.050875425
2.9233713 0.53671885 -0.51739299 9 4 0.050877094
4.3960724 0.80543405 -0.54367733 8 7 0.050880432
3.6474292 1.1676794 -0.53271854 6 6 0.050885677
25.348679 4.632679 -0.44918129 39 19 0.050887346
5.6552444 1.8073589 -0.51536757 27 11 0.050889254
5.7098656 1.8215919 -0.20704824 76 17 0.050892591
2.6718791 -0.066439129 -0.5123387 8 3 0.050899506
1.7657826 0.18076041 -0.4982962 5 0 0.050901175
7.4593253 -0.18562163 -0.58322394 5 12 0.050903082
2.430995 0.24916925 -0.51156211 6 2 0.050904751
22.624655 -0.5708546 -0.5877859 5 18 0.05090642
3.3240285 0.33960292 -0.52308732 8 5 0.050908089
5.9219661 0.60394382 -0.56877011 6 10 0.050911665
5.0916462 -0.52394372 -0.53351432 6 9 0.050913334
14.312243 1.4576705 -0.62659246 4 16 0.050915003
4.6086488 1.8593788 -0.56147552 6 8 0.050927401
2.1111174 0.3807185 -0.50583982 9 1 0.05092907
2.92765 0.52694839 -0.51782674 9 4 0.050932646
4.401299 0.79052341 -0.54398155 7 7 0.050935984
3.6444044 1.1526896 -0.53167599 6 6 0.050941229
25.389299 4.5485768 -0.44961759 32 19 0.050942898
5.6615186 1.7876073 -0.51536757 34 11 0.050944805
5.7209535 1.8031565 -0.20722185 84 17 0.050948143
2.669178 -0.075690374 -0.5118621 9 3 0.050955057
1.759227 0.17389199 -0.49623147 5 0 0.050956726
7.45614 -0.21158576 -0.58302826 5 12 0.050958633
